ply
format ascii 1.0
element vertex 717
property float x
property float y
property float z
property float nx
property float ny
property float nz
property uchar diffuse_red
property uchar diffuse_green
property uchar diffuse_blue
end_header
0.484013 -0.660123 -3.12572 -0.285287 0.554565 0.781709 129 138 129
0.507322 -0.668846 -3.10944 -0.178856 0.587573 0.789157 126 135 126
0.529798 -0.676681 -3.09819 -0.555972 0.226885 0.799636 98 106 97
0.550466 -0.667455 -3.08747 -0.64967 0.289146 0.703081 20 21 16
0.564689 -0.681322 -3.06738 -0.77174 0.0323511 0.635114 20 23 17
0.60245 -0.699265 -3.03039 -0.652995 0.281063 0.703279 36 54 25
0.593483 -0.682319 -3.02401 -0.84771 -0.0059441 0.530426 41 65 28
0.616127 -0.706068 -2.99339 -0.791219 -0.350969 0.500792 41 67 28
0.632092 -0.715025 -2.96832 -0.757032 -0.403956 0.51354 46 78 32
0.645975 -0.717619 -2.93472 -0.766853 -0.225287 0.600984 69 110 51
0.66677 -0.708526 -2.92908 -0.640372 0.0946588 0.76221 94 152 76
0.680357 -0.721666 -2.92732 -0.541994 0.25996 0.799164 88 145 70
0.689772 -0.713088 -2.92587 -0.352872 0.531672 0.769939 100 163 80
0.709241 -0.717641 -2.92988 -0.455576 0.485121 0.746396 104 169 82
0.709735 -0.734522 -2.91154 -0.512347 0.488686 0.706178 96 158 76
0.710184 -0.728784 -2.91018 -0.383646 0.603618 0.6989 101 164 78
0.731926 -0.7204 -2.93019 -0.272378 0.745222 0.608649 114 182 90
0.753591 -0.722057 -2.90577 -0.685681 0.507695 0.52162 122 191 101
0.763263 -0.73656 -2.83037 -0.506458 0.653793 0.562187 111 181 102
0.797031 -0.747082 -2.80619 -0.870422 -0.171258 0.461558 53 115 44
0.802928 -0.765588 -2.79274 -0.306611 0.044997 0.950771 114 167 66
0.823028 -0.75403 -2.78382 -0.159636 0.576203 0.801565 88 143 58
0.822959 -0.756862 -2.78943 -0.229987 0.201555 0.952093 98 151 60
0.850486 -0.77312 -2.77847 -0.230695 0.213393 0.949338 111 160 60
0.841639 -0.756668 -2.7836 -0.265106 0.209767 0.941125 100 152 60
0.85943 -0.757949 -2.77254 -0.24384 0.530464 0.81188 101 152 62
0.868207 -0.773703 -2.77281 -0.227938 0.175781 0.957677 110 157 59
0.887282 -0.773367 -2.77217 -0.175234 0.0414671 0.983653 110 156 59
0.906609 -0.77278 -2.77107 -0.295554 -0.228279 0.927651 110 153 58
0.927987 -0.781079 -2.77509 -0.270415 -0.550141 0.790076 105 141 53
0.923033 -0.77319 -2.76231 0.0457174 0.401783 0.914593 114 150 60
0.946455 -0.774738 -2.77388 0.313841 -0.132191 0.940228 109 144 54
0.963639 -0.775425 -2.76678 -0.0210533 0.00873227 0.99974 108 141 53
0.983135 -0.77491 -2.76419 0.0632295 -0.0326642 0.997464 113 142 58
1.00228 -0.774277 -2.77747 0.0612372 -0.561227 0.825394 107 135 48
1.02231 -0.78157 -2.80073 0.224104 -0.700752 0.677292 98 124 44
1.06047 -0.776612 -2.80385 0.207789 -0.650813 0.73025 101 121 43
1.08368 -0.782425 -2.82318 0.319615 -0.740223 0.591538 101 128 49
1.12965 -0.78274 -2.83825 0.140459 -0.675304 0.724041 84 133 79
-0.986794 -0.536896 -2.98114 0.0378221 -0.695117 0.717901 17 14 12
-0.963537 -0.54057 -2.98804 0.18243 -0.657891 0.730684 28 20 16
-0.969694 -0.529419 -2.9823 0.0318046 -0.695911 0.717423 25 19 16
-0.949557 -0.529109 -2.99223 0.420847 -0.586812 0.691765 32 21 16
-0.794332 -0.596053 -2.73086 0.458164 -0.276917 0.844631 27 19 17
-0.775074 -0.595918 -2.73806 0.188687 -0.338659 0.921796 35 32 29
-0.756748 -0.595997 -2.74084 0.25951 -0.291489 0.9207 121 124 107
-0.726836 -0.608018 -2.75301 0.222269 -0.308712 0.924821 156 51 72
-0.708932 -0.608263 -2.75539 0.280984 -0.286323 0.916006 191 90 113
-0.70734 -0.608008 -2.75888 0.267807 -0.273585 0.923813 190 101 118
-0.690754 -0.608338 -2.76124 0.34739 -0.281799 0.894377 171 169 145
-0.673813 -0.608176 -2.7696 0.403226 -0.270966 0.874063 99 165 166
-0.656519 -0.608216 -2.77726 0.462867 -0.262743 0.846594 63 151 175
-0.64111 -0.607934 -2.78646 0.403969 -0.27753 0.871657 82 117 118
-0.62245 -0.60809 -2.79035 0.153705 -0.317665 0.935662 67 35 23
-0.604709 -0.608437 -2.78862 0.0523517 -0.281246 0.958207 34 17 14
-0.584392 -0.612431 -2.76744 -0.656095 -0.320168 0.683397 23 22 21
-0.594195 -0.624637 -2.78186 -0.599161 -0.169355 0.782512 23 15 13
-0.564209 -0.622731 -2.76299 -0.346887 -0.161174 0.923955 25 30 26
-0.567081 -0.6228 -2.76354 -0.359608 -0.187032 0.914167 25 30 26
-0.534836 -0.62713 -2.74679 0.593303 -0.391939 0.703118 57 84 59
-0.51953 -0.62583 -2.75519 0.4475 -0.255412 0.857035 83 141 93
-0.501605 -0.637103 -2.7697 0.403039 -0.249728 0.880452 64 105 75
-0.469237 -0.629975 -2.78059 0.43982 -0.272702 0.855682 39 42 37
-0.48589 -0.629495 -2.77201 0.509252 -0.0386685 0.859748 58 89 66
-0.455034 -0.629534 -2.79319 0.578492 -0.366279 0.728826 46 46 43
-0.43839 -0.629354 -2.79861 0.12614 -0.423901 0.896881 42 41 40
-0.424202 -0.628571 -2.80669 -0.0613834 -0.297484 0.952752 37 34 33
-0.408019 -0.627785 -2.81428 0.265761 -0.236218 0.934651 24 20 18
-0.390413 -0.625232 -2.82217 0.124533 -0.33013 0.935685 15 13 12
-0.36083 -0.630683 -2.8111 -0.460989 -0.261373 0.848041 10 10 8
-0.360763 -0.645146 -2.81725 -0.451021 -0.233612 0.861398 10 9 9
-0.347703 -0.628989 -2.81711 -0.477351 -0.335584 0.812108 8 8 8
-0.336648 -0.64555 -2.81842 -0.631849 -0.304189 0.712907 11 11 9
-0.300044 -0.651559 -2.75754 -0.0279929 -0.350206 0.936254 44 32 16
-0.263062 -0.666786 -2.73834 0.115177 -0.343269 0.932149 91 48 22
-0.275796 -0.671823 -2.71987 0.166744 -0.343788 0.924125 64 37 18
-0.246565 -0.668108 -2.73484 0.249196 -0.314433 0.915988 108 59 29
-0.246103 -0.667528 -2.73511 0.242369 -0.309034 0.91965 109 60 29
-0.22934 -0.667299 -2.74084 0.169418 -0.362401 0.916495 121 70 36
-0.217002 -0.669183 -2.74708 0.212036 -0.308946 0.927142 141 84 45
-0.197469 -0.669853 -2.74263 0.172388 -0.313121 0.933937 130 77 36
-0.181351 -0.66997 -2.74927 0.329071 -0.31843 0.888997 151 109 34
-0.165093 -0.669325 -2.75708 0.3927 -0.278841 0.876375 207 182 45
-0.147435 -0.671416 -2.75914 0.453542 -0.207722 0.86669 206 182 40
-0.132592 -0.670753 -2.76624 0.331495 -0.266901 0.904917 204 181 44
-0.114537 -0.673212 -2.76778 0.219373 0.0168834 0.975495 209 185 44
-0.101072 -0.669193 -2.77765 0.284568 -0.313558 0.905927 213 189 45
-0.0950167 -0.672501 -2.77652 0.25858 -0.176468 0.949734 214 190 44
-0.084995 -0.669036 -2.78274 0.29602 -0.290373 0.909976 216 193 44
-0.0784559 -0.682315 -2.79011 0.253692 -0.242803 0.936316 219 195 44
-0.0678414 -0.675382 -2.77983 0.268869 0.0573953 0.961465 220 196 43
-0.0527649 -0.670369 -2.78969 0.235198 -0.181997 0.954756 217 193 42
-0.0495817 -0.674924 -2.79072 0.221504 -0.209882 0.952305 216 193 43
-0.0355804 -0.670304 -2.79432 0.167896 -0.264375 0.949693 216 192 49
-0.0318858 -0.675169 -2.79177 0.165783 -0.147411 0.975083 216 192 50
-0.0265745 -0.682744 -2.81258 0.293711 -0.660854 0.690656 215 193 54
-0.0184364 -0.672404 -2.79789 0.197766 -0.184554 0.962719 217 193 57
-0.00113462 -0.672711 -2.80176 0.360852 -0.120119 0.924855 215 183 61
0.00700448 -0.688217 -2.80925 0.395767 -0.186122 0.899293 219 196 62
0.0161342 -0.672598 -2.80918 0.304752 -0.246999 0.919847 203 110 40
0.016401 -0.672537 -2.80919 0.30442 -0.245563 0.920341 204 108 40
0.0229932 -0.688771 -2.81286 0.5241 0.0176678 0.851474 213 175 60
0.0392367 -0.686729 -2.82162 0.417342 -0.145623 0.897006 206 84 32
0.0560443 -0.687436 -2.82879 0.38706 -0.204328 0.89913 228 48 32
0.0602666 -0.692583 -2.83301 0.527198 0.0430765 0.84865 227 51 33
0.0721584 -0.687795 -2.83351 0.396274 -0.177937 0.900725 238 43 35
0.0885592 -0.688106 -2.83881 0.402711 -0.282571 0.870619 240 42 35
0.103689 -0.688929 -2.84075 0.535734 -0.515208 0.668991 241 44 39
0.121023 -0.693885 -2.84483 0.655994 -0.551074 0.515742 240 42 36
0.155426 -0.691848 -2.87661 0.760116 -0.3026 0.575028 231 53 46
0.251026 -0.690099 -2.90817 -0.80213 -0.00541365 0.597126 68 96 43
0.274341 -0.691996 -2.90451 -0.374149 0.506371 0.776918 88 135 62
0.294432 -0.700349 -2.90183 -0.260922 0.56157 0.785213 98 150 72
0.323487 -0.708287 -2.89702 0.123268 0.635531 0.762172 114 176 89
0.344291 -0.700237 -2.90492 0.144955 0.689366 0.709762 122 184 98
0.412809 -0.708384 -2.91308 -0.286269 0.612034 0.7372 134 141 133
0.460977 -0.694386 -3.0836 0.0603707 0.767219 0.638537 136 142 133
0.484441 -0.682143 -3.11184 -0.386887 0.440301 0.810218 134 141 134
0.507269 -0.690407 -3.09485 -0.218129 0.56921 0.79273 132 140 132
0.528507 -0.698618 -3.08331 -0.0903959 0.604413 0.791526 137 143 138
0.548999 -0.693913 -3.08366 -0.563869 0.284636 0.775264 94 100 93
0.56357 -0.708559 -3.06761 -0.650773 0.178447 0.738005 78 82 74
0.585755 -0.710206 -3.0405 -0.823786 -0.082412 0.560879 18 22 15
0.617385 -0.71231 -3.01876 -0.55471 0.148074 0.818762 35 54 24
0.628268 -0.721829 -2.99745 -0.786387 -0.322613 0.526798 35 56 23
0.645021 -0.734215 -2.96833 -0.760589 -0.398896 0.512238 37 61 23
0.668499 -0.740404 -2.9147 -0.820846 -0.294692 0.489254 62 101 46
0.689772 -0.732755 -2.91248 -0.676159 0.238197 0.697188 88 143 68
0.689995 -0.739407 -2.91428 -0.657414 0.190437 0.729068 81 132 61
0.713497 -0.755954 -2.90672 -0.741279 0.283127 0.60856 77 139 67
0.713041 -0.752502 -2.91486 -0.697015 0.205346 0.687025 80 142 68
0.733842 -0.743523 -2.93109 -0.76186 0.395157 0.513245 101 169 83
0.735225 -0.740426 -2.93057 -0.712074 0.472106 0.51968 104 173 85
0.733749 -0.746339 -2.89947 -0.852358 0.232038 0.468662 99 168 83
0.729513 -0.749305 -2.88023 -0.338021 0.769519 0.541832 94 169 84
0.74162 -0.774761 -2.81057 -0.542625 0.465755 0.699021 106 160 61
0.747906 -0.752873 -2.84727 -0.457625 0.710953 0.533971 81 161 80
0.796557 -0.782064 -2.80582 -0.251094 -0.0556799 0.96636 114 166 62
0.782203 -0.765949 -2.79513 -0.332745 0.232576 0.913887 114 170 66
0.815744 -0.775754 -2.79483 -0.269745 0.0433211 0.961957 112 163 61
0.812892 -0.77317 -2.78865 -0.258548 0.190507 0.947027 113 164 62
0.832706 -0.774517 -2.78938 -0.255651 0.0637728 0.964663 111 160 59
0.842408 -0.786411 -2.7987 -0.270987 -0.11861 0.955247 107 154 55
0.86105 -0.786729 -2.79062 -0.0683239 -0.39557 0.915891 106 154 55
0.886923 -0.786322 -2.79688 -0.448606 -0.558294 0.697897 104 152 55
0.90736 -0.789361 -2.80027 0.0328239 -0.735195 0.677061 104 144 50
0.955388 -0.791125 -2.78423 -0.0840886 -0.501594 0.861007 103 133 48
0.973472 -0.800172 -2.79631 -0.706527 -0.510401 0.490215 99 126 44
1.00322 -0.791315 -2.79857 0.0220087 -0.566189 0.823981 103 128 46
1.02229 -0.798223 -2.8179 0.269514 -0.754523 0.59838 103 126 44
1.04171 -0.804315 -2.82493 0.327354 -0.720893 0.610862 101 126 44
1.03202 -0.803283 -2.83085 0.0965676 -0.678283 0.728428 109 131 51
1.06293 -0.793409 -2.82401 0.153251 -0.671623 0.724871 107 133 50
1.08292 -0.79996 -2.83321 -0.294855 -0.754947 0.58576 97 123 47
1.10828 -0.794679 -2.84347 0.180549 -0.658247 0.730831 75 100 43
1.12842 -0.80191 -2.85736 0.137716 -0.670969 0.728584 89 94 80
-0.960955 -0.555405 -2.99456 0.0863952 -0.672705 0.73485 27 19 16
-0.9752 -0.562216 -2.98414 0.0351943 -0.68331 0.729279 19 14 12
-0.95339 -0.568357 -2.98643 0.0175126 -0.6798 0.733189 27 19 16
-0.785438 -0.611379 -2.74182 0.219585 -0.343236 0.913221 28 22 20
-0.767683 -0.611602 -2.74248 0.311977 -0.299162 0.901761 36 34 32
-0.778488 -0.627384 -2.7455 0.271274 -0.338942 0.900849 29 23 20
-0.759309 -0.627674 -2.74956 0.264218 -0.301726 0.916052 71 65 62
-0.749732 -0.614216 -2.75143 0.304097 -0.302841 0.903223 162 162 137
-0.73713 -0.624307 -2.75559 0.238047 -0.344621 0.908058 159 103 97
-0.717608 -0.624065 -2.76061 0.254814 -0.333687 0.907592 184 56 93
-0.700545 -0.624119 -2.76511 0.286588 -0.291226 0.912718 181 119 128
-0.681538 -0.624188 -2.7703 0.379376 -0.277037 0.882794 128 170 161
-0.664543 -0.624093 -2.77872 0.429003 -0.272292 0.861286 69 155 175
-0.649827 -0.623647 -2.78726 0.427803 -0.282187 0.858693 78 152 168
-0.632619 -0.624096 -2.79525 0.319687 -0.298551 0.89926 80 72 65
-0.614038 -0.62425 -2.79607 0.0905713 -0.312305 0.945654 52 19 12
-0.605754 -0.637456 -2.80339 0.157452 -0.156611 0.975029 38 15 12
-0.576178 -0.639926 -2.77651 -0.522954 -0.25546 0.813179 25 26 23
-0.548979 -0.640681 -2.7533 0.210342 -0.251994 0.944593 29 46 31
-0.552925 -0.639691 -2.75564 0.0622589 -0.235827 0.969799 29 42 30
-0.531036 -0.6407 -2.75795 0.360143 -0.288904 0.887035 89 137 93
-0.511967 -0.645074 -2.76623 0.35469 -0.282469 0.891295 54 85 61
-0.477956 -0.645127 -2.7773 0.343206 -0.319636 0.8832 48 77 55
-0.462453 -0.645039 -2.78639 0.440388 -0.341338 0.830389 45 54 44
-0.448388 -0.643235 -2.80088 0.484455 -0.312932 0.816932 44 46 40
-0.424441 -0.659674 -2.8077 0.380522 -0.303174 0.873664 42 43 40
-0.414604 -0.644422 -2.81103 -0.0172606 -0.274145 0.961533 31 28 26
-0.430761 -0.644686 -2.80241 0.0995592 -0.337445 0.936066 42 42 39
-0.399472 -0.643392 -2.82165 0.0932458 -0.218361 0.971403 20 16 14
-0.38302 -0.642564 -2.83234 -0.310728 -0.181517 0.933006 13 12 10
-0.371877 -0.659836 -2.83139 -0.152072 -0.303677 0.940561 10 10 9
-0.35091 -0.660492 -2.82098 0.0511161 -0.357381 0.932559 10 10 9
-0.32292 -0.66761 -2.75169 -0.291439 -0.428338 0.85533 13 12 10
-0.289313 -0.685663 -2.72807 0.341217 -0.318641 0.88433 37 27 15
-0.26985 -0.682202 -2.73379 0.293561 -0.315842 0.902256 84 46 22
-0.255548 -0.680966 -2.74263 -0.0818978 -0.364839 0.927462 106 58 27
-0.256001 -0.681387 -2.74283 -0.0729561 -0.36495 0.928164 106 58 27
-0.238718 -0.681384 -2.74409 0.24296 -0.380291 0.892384 116 65 32
-0.238886 -0.681701 -2.74245 0.300069 -0.345828 0.889023 119 68 34
-0.209076 -0.683664 -2.75283 0.0181412 -0.339869 0.940298 125 70 32
-0.189751 -0.68396 -2.74721 0.420861 -0.296052 0.857455 133 82 33
-0.174594 -0.683823 -2.75465 0.504632 -0.250792 0.826105 182 149 44
-0.159295 -0.685639 -2.76694 0.554723 -0.395762 0.731884 209 184 41
-0.140471 -0.68656 -2.76384 0.273778 -0.227124 0.934591 209 184 41
-0.123943 -0.689926 -2.76746 0.248598 -0.101744 0.963248 210 185 42
-0.104927 -0.69038 -2.76886 0.28693 0.127712 0.9494 213 189 43
-0.0877131 -0.688712 -2.77431 0.418656 0.149872 0.895693 215 191 43
-0.0614129 -0.691802 -2.79629 0.423997 -0.347098 0.83651 218 194 44
-0.0402052 -0.692182 -2.80898 0.386785 -0.64078 0.663173 216 192 50
-0.0164599 -0.702516 -2.80796 0.283725 -0.458922 0.841957 216 194 55
-0.00166456 -0.702412 -2.81513 0.358469 -0.455007 0.81515 219 197 57
0.0141975 -0.703196 -2.81711 0.389157 -0.278503 0.878062 218 197 58
0.0462535 -0.703145 -2.8241 0.513822 0.0271341 0.857468 209 150 52
0.0612648 -0.712161 -2.83272 0.53496 0.0349564 0.844154 208 138 50
0.0627962 -0.702819 -2.83355 0.528682 0.0261315 0.848418 214 76 34
0.0741121 -0.707131 -2.83886 0.460793 -0.0981593 0.882063 222 59 31
0.0904559 -0.707274 -2.84563 0.418252 -0.188958 0.888459 238 45 35
0.107191 -0.708118 -2.85202 0.401654 -0.257202 0.878932 239 45 37
0.121572 -0.708085 -2.85148 0.453878 -0.505666 0.733688 240 46 39
0.132701 -0.696487 -2.86309 0.280492 -0.482578 0.829724 240 48 41
0.218769 -0.70068 -2.92593 -0.464752 -0.330363 0.821502 27 28 16
0.264118 -0.708301 -2.90044 -0.778266 0.104982 0.619096 68 96 43
0.27623 -0.724741 -2.88306 -0.737347 0.159658 0.656376 71 99 44
0.294199 -0.717691 -2.87715 -0.310911 0.507729 0.803459 96 142 69
0.301677 -0.723041 -2.8721 -0.281205 0.511823 0.811764 100 150 74
0.323433 -0.726949 -2.88324 -0.0426929 0.525666 0.849619 112 171 87
0.34479 -0.726223 -2.88274 0.0935344 0.602583 0.792556 118 183 94
0.364239 -0.734394 -2.8766 0.17708 0.662993 0.727381 124 186 98
0.364666 -0.718257 -2.90443 0.201798 0.72451 0.659062 120 181 97
0.370731 -0.738962 -2.87403 0.179195 0.660826 0.728833 125 186 98
0.412504 -0.744086 -2.87442 0.0841601 0.735262 0.672538 131 145 127
0.413089 -0.7289 -2.90487 -0.274334 0.551944 0.787463 136 144 134
0.485406 -0.704871 -3.08074 0.0341837 0.748469 0.662289 136 143 135
0.507286 -0.710205 -3.08 -0.300998 0.559769 0.772048 132 139 131
0.514552 -0.725473 -3.05732 0.163099 0.678576 0.716194 134 140 133
0.527904 -0.716838 -3.06076 0.0799042 0.677437 0.731228 134 141 132
0.538392 -0.718219 -3.06263 0.116187 0.706265 0.698348 131 139 130
0.583844 -0.733908 -3.04313 -0.645555 0.175513 0.743272 88 93 85
0.600489 -0.722841 -3.03521 -0.638543 0.0488176 0.768037 17 21 15
0.615798 -0.736818 -3.00853 -0.757669 -0.0986508 0.64514 19 24 16
0.631697 -0.747687 -2.99195 -0.745018 -0.0710352 0.663251 20 24 17
0.669665 -0.764235 -2.93404 -0.779378 -0.440697 0.445371 34 58 22
0.719336 -0.77506 -2.87894 -0.770918 0.235996 0.591601 60 112 48
0.726252 -0.781129 -2.83639 -0.421679 -0.25694 0.86958 90 136 52
0.752173 -0.79193 -2.81801 -0.195564 -0.185075 0.963069 109 157 59
0.769497 -0.790218 -2.81082 0.00184464 -0.312663 0.949862 114 166 63
0.788249 -0.789979 -2.81599 0.126537 -0.205134 0.97052 111 164 59
0.809643 -0.79607 -2.8216 0.0725003 -0.182249 0.980576 111 158 57
0.828198 -0.796046 -2.8166 -0.0114024 -0.0986731 0.995055 109 154 55
0.83642 -0.803555 -2.81481 -0.182706 -0.277642 0.943151 109 156 56
0.853835 -0.803675 -2.8034 -0.153731 -0.298242 0.942029 107 152 55
0.888061 -0.795298 -2.8179 -0.179989 -0.654045 0.734731 104 147 53
0.916313 -0.804094 -2.81489 -0.527817 -0.393743 0.752579 103 137 49
0.934991 -0.804135 -2.80709 -0.416597 -0.461687 0.783129 104 135 49
0.956351 -0.808013 -2.80547 -0.201246 -0.430515 0.879862 103 131 47
1.04672 -0.823244 -2.85736 -0.0244519 -0.486571 0.873299 106 131 49
1.0624 -0.810836 -2.83553 -0.0215171 -0.59901 0.800452 107 133 50
1.08564 -0.821541 -2.86293 0.135416 -0.64407 0.752885 96 130 51
1.10872 -0.813416 -2.85974 0.179028 -0.557847 0.810404 90 140 83
1.12948 -0.820529 -2.87792 0.36426 -0.58483 0.724768 101 142 103
-0.977947 -0.575141 -3.00496 -0.509641 -0.344607 0.788361 17 14 12
-0.953792 -0.585298 -2.99982 0.114453 -0.559605 0.820819 25 19 16
-0.936723 -0.577763 -2.97813 -0.0538426 -0.735739 0.675121 31 21 17
-0.789592 -0.643576 -2.74786 0.479951 -0.105673 0.870908 29 19 16
-0.771359 -0.642674 -2.75885 -0.15205 -0.415146 0.896959 40 30 30
-0.749438 -0.642953 -2.75827 0.255269 -0.2784 0.925922 144 104 107
-0.728721 -0.64038 -2.76239 0.205992 -0.30725 0.929067 158 57 75
-0.71048 -0.640543 -2.76496 0.255162 -0.308217 0.916458 188 76 108
-0.691703 -0.640562 -2.77063 0.354076 -0.283722 0.891141 157 141 146
-0.672881 -0.640339 -2.78141 0.404651 -0.263241 0.875764 92 163 171
-0.643586 -0.639884 -2.79553 0.413986 -0.287176 0.863797 91 145 150
-0.625585 -0.639867 -2.80218 0.231309 -0.317107 0.91975 76 41 34
-0.616955 -0.654613 -2.80792 -0.302441 -0.297187 0.905654 68 20 15
-0.568733 -0.654397 -2.77452 -0.45414 -0.189275 0.870593 26 30 25
-0.570277 -0.654057 -2.77532 -0.466043 -0.205546 0.860555 26 29 25
-0.533806 -0.671358 -2.76777 0.227841 -0.304769 0.924773 55 107 71
-0.543535 -0.655781 -2.76035 0.186182 -0.313078 0.931299 66 106 74
-0.541872 -0.655551 -2.76207 0.244259 -0.362933 0.899231 74 118 83
-0.522157 -0.6597 -2.76757 0.349368 -0.317168 0.881673 64 106 73
-0.505539 -0.659714 -2.77414 0.355659 -0.326724 0.875647 53 91 62
-0.498794 -0.674224 -2.78199 0.360737 -0.30304 0.882063 78 146 99
-0.489045 -0.659622 -2.78108 0.309272 -0.356661 0.881558 81 135 97
-0.472593 -0.659559 -2.78829 0.379217 -0.307756 0.872629 60 101 72
-0.47162 -0.659421 -2.78443 0.381652 -0.302029 0.873567 59 101 71
-0.482813 -0.674025 -2.79026 0.309763 -0.366156 0.877483 86 157 105
-0.46625 -0.674218 -2.79596 0.343077 -0.211549 0.915175 79 141 96
-0.457501 -0.659126 -2.79587 0.389973 -0.144073 0.909486 53 77 59
-0.456483 -0.659515 -2.79586 0.349564 -0.192014 0.917026 53 77 59
-0.440715 -0.658996 -2.80475 0.381664 -0.315166 0.868909 47 54 45
-0.45 -0.675107 -2.80508 0.403505 -0.249266 0.880369 60 96 69
-0.432824 -0.675313 -2.81008 0.381169 -0.390272 0.838092 47 56 45
-0.417077 -0.675708 -2.81472 0.450485 -0.32551 0.831328 40 40 35
-0.400588 -0.672284 -2.82 -0.0510942 -0.443331 0.894901 25 20 17
-0.402256 -0.672002 -2.82086 -0.0535366 -0.462376 0.885067 26 21 18
-0.408012 -0.659528 -2.82377 0.362897 -0.220934 0.905259 26 22 20
-0.392973 -0.659054 -2.8359 0.224084 -0.281097 0.933151 18 15 13
-0.360363 -0.677562 -2.82124 0.0182912 -0.368699 0.929369 11 11 10
-0.341659 -0.675067 -2.83368 -0.165995 -0.370795 0.91376 12 11 9
-0.310715 -0.684268 -2.73881 -0.659065 -0.143303 0.738307 25 21 13
-0.265433 -0.698589 -2.7403 -0.185095 -0.366416 0.911855 93 50 25
-0.279857 -0.702573 -2.73725 -0.0995679 -0.373557 0.922248 54 33 16
-0.283985 -0.698546 -2.74411 -0.485067 -0.304792 0.819641 50 31 15
-0.264862 -0.69778 -2.74266 -0.0334885 -0.363677 0.930923 95 51 25
-0.248057 -0.695266 -2.7451 0.35258 -0.318922 0.879759 112 63 30
-0.231623 -0.695009 -2.75033 0.103646 -0.400878 0.91025 121 69 34
-0.232704 -0.696187 -2.74444 0.225558 -0.281118 0.93279 123 70 35
-0.22641 -0.708257 -2.76666 0.0319394 -0.382746 0.923302 127 74 37
-0.200628 -0.697365 -2.75243 0.238471 -0.268348 0.933338 125 71 32
-0.208102 -0.708248 -2.76754 0.234456 -0.325748 0.915925 127 72 32
-0.182015 -0.699556 -2.75344 0.580404 -0.232053 0.780565 136 91 30
-0.174195 -0.712429 -2.76378 0.728608 -0.177127 0.661632 174 139 42
-0.158568 -0.707501 -2.77619 0.640389 -0.211261 0.738424 207 182 41
-0.135762 -0.702455 -2.77094 0.0982083 -0.0904945 0.991043 208 184 39
-0.112883 -0.705175 -2.78514 0.58624 -0.303354 0.751199 214 189 43
-0.0931906 -0.706303 -2.78375 0.43796 -0.362702 0.822581 216 191 43
-0.0820046 -0.705446 -2.79639 0.205979 -0.430603 0.878723 217 193 41
-0.0882531 -0.718701 -2.80389 0.058362 -0.216601 0.974514 218 194 42
-0.0642722 -0.705217 -2.80135 0.0132917 -0.306277 0.95185 220 196 46
-0.0119034 -0.71531 -2.81435 0.471042 -0.551558 0.688406 216 195 57
0.00232614 -0.716014 -2.81599 0.415735 -0.417251 0.808125 217 196 57
0.0311395 -0.721607 -2.82286 0.382744 -0.232205 0.894197 215 194 58
0.032704 -0.713088 -2.81942 0.425548 -0.118193 0.897184 216 194 59
0.0476125 -0.722268 -2.82698 0.45543 -0.0804349 0.886631 217 195 62
0.0812782 -0.723304 -2.84478 0.456118 -0.128799 0.880549 209 107 40
0.098019 -0.723393 -2.85286 0.430812 -0.178217 0.884669 227 57 35
0.113151 -0.722076 -2.85907 0.420135 -0.214255 0.881806 236 46 36
0.128167 -0.723357 -2.85778 0.399265 -0.454497 0.796253 240 45 37
0.141545 -0.722791 -2.87367 0.703962 -0.455478 0.544956 244 49 45
0.206926 -0.726882 -2.94745 0.0605151 -0.589225 0.805699 30 27 21
0.243469 -0.721046 -2.91825 -0.832286 -0.139214 0.536582 33 40 17
0.237773 -0.733254 -2.94957 -0.787043 -0.0265805 0.616325 24 23 16
0.258563 -0.737972 -2.91589 -0.790138 -0.0210644 0.612567 32 40 18
0.290965 -0.744493 -2.85984 -0.757672 0.078383 0.647911 79 110 49
0.288522 -0.740147 -2.86558 -0.700861 0.153291 0.696632 78 109 49
0.309775 -0.74022 -2.85898 -0.282259 0.413677 0.865564 104 153 76
0.322819 -0.759278 -2.84693 -0.226963 0.458732 0.8591 106 157 78
0.325268 -0.74922 -2.85877 -0.241036 0.448014 0.860921 108 164 83
0.350919 -0.748871 -2.86683 -0.089227 0.574971 0.813294 115 178 91
0.3449 -0.74615 -2.87373 -0.204436 0.527138 0.824822 113 176 89
0.3711 -0.756611 -2.85657 0.209108 0.632537 0.745768 122 187 97
0.363955 -0.751647 -2.86136 0.164977 0.622813 0.764779 119 184 95
0.489896 -0.732739 -3.04967 0.00116627 0.671911 0.740631 135 141 134
0.51439 -0.745986 -3.04072 0.0747706 0.703943 0.70631 130 136 127
0.538087 -0.737042 -3.04973 0.123338 0.703573 0.699838 139 145 138
0.57762 -0.758696 -3.03268 -0.431215 0.439418 0.788014 135 143 136
0.598889 -0.74721 -3.02722 -0.63848 0.117458 0.760623 83 89 82
0.618993 -0.762026 -3.01411 -0.754543 -0.0836332 0.6509 67 72 66
0.633921 -0.772321 -3.0013 -0.765523 -0.165016 0.621887 53 58 53
0.647263 -0.758693 -2.97871 -0.795396 -0.0138397 0.605932 17 21 14
0.660991 -0.771106 -2.96625 -0.811618 0.0569401 0.581407 17 21 13
0.696305 -0.79966 -2.87173 -0.873936 -0.189562 0.447552 54 94 36
0.70381 -0.78156 -2.90708 -0.853923 0.118992 0.506613 41 75 30
0.698425 -0.779481 -2.92186 -0.852867 0.183562 0.488798 36 59 25
0.715385 -0.795157 -2.83599 -0.85449 -0.0362951 0.518198 84 122 45
0.742266 -0.807731 -2.82985 -0.168158 -0.305552 0.937209 106 147 58
0.73331 -0.794179 -2.83522 -0.329489 -0.222618 0.917539 99 143 54
0.734051 -0.793293 -2.82708 -0.331968 -0.224921 0.916083 101 145 55
0.744165 -0.809325 -2.83043 -0.189563 -0.239489 0.952214 106 147 58
0.761701 -0.807819 -2.82421 -0.00094936 -0.263716 0.9646 110 156 59
0.781649 -0.810294 -2.82528 -0.149556 -0.356038 0.922426 110 156 57
0.794978 -0.801993 -2.84791 0.0348772 -0.682168 0.730363 110 160 57
0.800297 -0.809934 -2.82073 -0.230678 -0.288009 0.929429 111 157 57
0.818973 -0.81034 -2.81783 -0.176032 -0.291243 0.940314 111 157 58
0.826531 -0.816799 -2.81264 -0.18008 -0.329383 0.926865 111 155 57
0.84628 -0.818397 -2.81551 -0.0489912 -0.406226 0.912458 111 154 57
0.865584 -0.827366 -2.81672 -0.0174437 -0.45925 0.888136 108 146 55
0.878772 -0.810985 -2.8179 -0.112154 -0.407742 0.906183 105 143 52
0.891768 -0.825452 -2.83342 -0.132552 -0.335452 0.932685 105 137 51
0.90004 -0.809791 -2.84574 -0.242428 -0.51835 0.820087 100 134 47
0.911028 -0.825234 -2.83706 -0.417159 -0.355354 0.836482 101 130 47
0.929675 -0.821919 -2.81551 -0.326862 -0.65879 0.677611 101 130 47
0.950436 -0.835549 -2.82443 -0.210603 -0.630047 0.747453 100 123 43
1.0239 -0.831464 -2.84955 0.19797 -0.573675 0.794799 105 129 49
1.04278 -0.837683 -2.85441 0.15754 -0.59535 0.78787 107 133 50
1.06298 -0.828407 -2.85369 0.100935 -0.568776 0.816275 109 135 52
1.08619 -0.840524 -2.87804 0.141381 -0.598715 0.788385 103 130 51
1.10903 -0.832223 -2.87505 0.182947 -0.627844 0.756533 71 112 51
1.13093 -0.839053 -2.89207 0.170283 -0.700489 0.69305 84 93 75
-0.948805 -0.600243 -2.99622 -0.0221526 -0.337749 0.940976 25 19 16
-0.957366 -0.605206 -2.99651 -0.44599 -0.247773 0.860059 19 15 13
-0.933719 -0.592037 -3.00234 -0.0246556 -0.326691 0.94481 33 22 18
-0.922545 -0.608494 -2.98463 -0.438664 -0.514198 0.737003 33 21 18
-0.774715 -0.658996 -2.75696 0.310314 -0.318566 0.895668 31 22 21
-0.758801 -0.658381 -2.76047 0.0808819 -0.358752 0.929922 73 45 51
-0.74085 -0.657745 -2.76591 0.252706 -0.277352 0.926939 175 93 107
-0.72046 -0.656621 -2.77068 0.167543 -0.320977 0.93215 170 49 80
-0.698947 -0.656402 -2.77567 0.286364 -0.295892 0.911287 173 111 129
-0.683744 -0.656224 -2.78132 0.377672 -0.278874 0.882946 118 153 162
-0.666481 -0.656212 -2.78886 0.43434 -0.264559 0.861021 74 156 173
-0.65902 -0.671853 -2.79896 0.484195 -0.269587 0.832393 67 153 174
-0.653711 -0.65521 -2.7964 0.452471 -0.276141 0.847948 73 156 174
-0.647967 -0.670624 -2.80408 0.429382 -0.283278 0.857546 84 156 167
-0.637269 -0.655257 -2.80355 0.407954 -0.284289 0.867614 90 121 119
-0.630916 -0.670623 -2.81135 0.374407 -0.294867 0.879132 87 88 81
-0.637551 -0.658885 -2.80941 0.322133 -0.279814 0.904397 89 117 115
-0.615756 -0.67091 -2.81266 0.0557934 -0.34723 0.936119 68 19 14
-0.595024 -0.67407 -2.794 -0.599217 -0.160503 0.784332 31 13 11
-0.581411 -0.669386 -2.78637 -0.495078 -0.291267 0.818573 26 21 18
-0.553504 -0.671239 -2.76584 0.0447225 -0.324549 0.944811 34 61 42
-0.544228 -0.687345 -2.77119 0.161491 -0.310525 0.936747 54 98 67
-0.524414 -0.689085 -2.77457 0.276487 -0.293136 0.915219 80 147 98
-0.509164 -0.688936 -2.78372 0.391321 -0.334902 0.857151 89 162 103
-0.476634 -0.689754 -2.79729 0.366429 -0.269409 0.890589 92 165 108
-0.492371 -0.68851 -2.7908 0.340823 -0.328837 0.880742 91 165 107
-0.459505 -0.689714 -2.80429 0.405697 -0.261982 0.875657 80 144 98
-0.459306 -0.690212 -2.8037 0.439517 -0.300724 0.846398 80 144 98
-0.442109 -0.690411 -2.80864 0.317443 -0.415085 0.852605 55 90 65
-0.42735 -0.689272 -2.81748 0.511062 -0.20067 0.835792 48 60 47
-0.425955 -0.689762 -2.81893 0.516038 -0.186595 0.835995 47 60 49
-0.411984 -0.686285 -2.82212 0.441423 -0.278737 0.852908 36 37 31
-0.41053 -0.686573 -2.82205 0.360211 -0.311782 0.879227 35 35 30
-0.394118 -0.687855 -2.82039 0.103784 -0.468414 0.877392 25 20 16
-0.396318 -0.687445 -2.82262 0.0439153 -0.423546 0.904809 26 23 18
-0.377409 -0.685357 -2.8371 0.195002 -0.323275 0.925995 17 15 13
-0.331141 -0.688679 -2.84986 -0.737117 -0.342688 0.582429 14 14 10
-0.316074 -0.696947 -2.83899 -0.648711 -0.330163 0.685687 33 29 17
-0.290116 -0.713961 -2.76885 -0.730074 -0.270299 0.62764 50 35 14
-0.270383 -0.717344 -2.74351 -0.0656137 -0.34504 0.936292 77 43 21
-0.270489 -0.717552 -2.74356 -0.06253 -0.348955 0.935051 77 43 21
-0.256522 -0.712042 -2.74657 -0.0822909 -0.374315 0.923643 103 57 27
-0.254176 -0.714281 -2.74708 0.49808 -0.233308 0.835155 106 58 28
-0.25244 -0.723754 -2.76806 0.460329 -0.250401 0.851702 111 61 28
-0.242566 -0.70858 -2.76032 0.531893 -0.252272 0.808362 117 65 31
-0.238263 -0.727551 -2.74996 0.435585 -0.195538 0.878653 117 65 30
-0.220128 -0.72299 -2.76739 0.192516 -0.275134 0.941934 141 82 41
-0.201687 -0.72963 -2.76511 0.235666 -0.3522 0.905769 125 73 31
-0.189338 -0.71617 -2.75555 0.470353 -0.265685 0.841534 132 81 32
-0.183592 -0.730378 -2.76223 0.610064 -0.238928 0.75547 130 83 29
-0.164937 -0.725242 -2.77622 0.656835 -0.235452 0.716332 206 180 48
-0.14893 -0.720773 -2.78105 0.440878 -0.265739 0.857327 207 182 41
-0.133085 -0.720975 -2.78589 0.477412 -0.338814 0.81073 209 185 42
-0.103977 -0.721946 -2.79078 0.353535 -0.248457 0.901822 215 191 43
-0.113139 -0.735092 -2.80173 0.239828 -0.372173 0.896644 213 188 43
-0.0949891 -0.735252 -2.80448 0.10797 -0.388932 0.914918 216 192 44
-0.0783476 -0.735058 -2.80672 0.0721235 -0.37019 0.926152 219 196 45
-0.062349 -0.734771 -2.81251 -0.130476 -0.29156 0.947612 220 197 49
-0.0710649 -0.720794 -2.80869 0.0708826 -0.179004 0.981292 220 196 44
-0.0272195 -0.725649 -2.81787 0.0124115 -0.343301 0.939143 215 194 53
-0.0366833 -0.740892 -2.81588 0.36242 -0.140429 0.921375 216 194 51
-0.0188156 -0.740345 -2.82006 0.328381 -0.18163 0.926918 215 193 54
-0.00341854 -0.740098 -2.82979 0.368176 0.00559944 0.929739 218 196 59
0.00668384 -0.729272 -2.82274 0.44312 -0.48881 0.751471 217 196 58
0.0393297 -0.737729 -2.8311 0.400348 -0.295322 0.867471 217 196 59
0.0221596 -0.735734 -2.82593 0.58994 -0.445186 0.673632 217 196 59
0.0559365 -0.738211 -2.83635 0.423273 -0.214266 0.880301 217 197 60
0.0718477 -0.738245 -2.84377 0.403204 -0.216782 0.889062 221 196 64
0.0877986 -0.738339 -2.85036 0.489275 -0.0879175 0.867687 214 165 58
0.104751 -0.738334 -2.86001 0.498459 -0.0648669 0.864483 212 88 36
0.120975 -0.739115 -2.86409 0.318358 -0.294576 0.90104 230 57 36
0.135734 -0.740181 -2.86189 0.480159 -0.452829 0.751261 241 49 42
0.158889 -0.751453 -2.90434 0.675599 0.216279 0.704833 224 89 78
0.244323 -0.75364 -2.9415 -0.599015 -0.178204 0.780656 23 22 17
0.270656 -0.753232 -2.89282 -0.791684 -0.0125893 0.610801 36 45 19
0.284079 -0.77107 -2.8728 -0.859041 0.00845697 0.511837 40 52 18
0.302368 -0.760997 -2.84618 -0.653975 0.196699 0.730497 81 115 51
0.308601 -0.775843 -2.83854 -0.682396 0.202164 0.702471 82 117 54
0.329987 -0.776825 -2.83427 -0.326147 0.474001 0.817894 98 149 71
0.336056 -0.781004 -2.83169 -0.361685 0.457798 0.812161 97 149 69
0.350916 -0.767029 -2.85193 -0.0756823 0.629919 0.772965 111 173 86
0.344823 -0.764157 -2.85983 -0.233429 0.516026 0.824153 109 169 83
0.371079 -0.774661 -2.84124 0.15894 0.655919 0.737908 119 185 95
0.379368 -0.785627 -2.83173 0.285484 0.671046 0.684249 118 186 95
0.392032 -0.769644 -2.85554 0.275042 0.650079 0.708343 123 184 100
0.401679 -0.78932 -2.83599 0.331073 0.664213 0.670233 125 186 102
0.438789 -0.779149 -2.88227 0.0431282 0.609243 0.79181 136 144 134
0.514808 -0.766801 -3.01268 -0.0919716 0.723166 0.684523 138 144 136
0.556755 -0.759375 -3.03148 -0.415865 0.467117 0.780294 134 142 134
0.562747 -0.778008 -3.02325 -0.513544 0.479908 0.711309 140 147 141
0.583905 -0.777733 -3.01739 -0.463288 0.474457 0.748501 139 149 146
0.647588 -0.784114 -2.9877 -0.714118 -0.0102271 0.69995 44 49 42
0.648158 -0.780626 -2.98986 -0.768865 -0.19342 0.609455 31 34 28
0.662684 -0.79521 -2.97619 -0.768464 -0.163424 0.618673 34 38 31
0.664367 -0.798782 -2.96325 -0.797066 0.179681 0.576542 37 41 36
0.681607 -0.787983 -2.94512 -0.770209 0.250281 0.586633 18 26 15
0.691967 -0.805302 -2.92922 -0.830438 0.225422 0.509469 19 27 17
0.708652 -0.809349 -2.85386 -0.855041 -0.172051 0.489186 76 112 40
0.724731 -0.809603 -2.84093 -0.364937 -0.222165 0.904137 95 133 50
0.73469 -0.823344 -2.84106 -0.336301 -0.484286 0.807694 96 130 47
0.752285 -0.824064 -2.82975 -0.21662 -0.443096 0.869909 103 140 53
0.771722 -0.824136 -2.82421 -0.0797447 -0.292089 0.953061 113 154 61
0.805608 -0.834857 -2.82539 -0.0318044 -0.498629 0.866232 105 141 52
0.825883 -0.834713 -2.82406 -0.176118 -0.590383 0.787674 106 143 53
0.844934 -0.827825 -2.81527 -0.126097 -0.397362 0.908957 109 150 55
0.86521 -0.837166 -2.82678 -0.0436082 -0.645556 0.762467 102 136 49
0.878899 -0.841717 -2.83325 -0.306147 -0.62629 0.716962 99 129 48
0.902052 -0.840911 -2.83905 -0.449938 -0.105301 0.88683 99 125 45
0.930196 -0.841926 -2.82581 -0.0615517 -0.717216 0.694128 101 125 47
0.949974 -0.853323 -2.83376 0.0980746 -0.58331 0.806307 99 122 43
0.969928 -0.847086 -2.82829 -0.084556 -0.621559 0.778791 101 124 43
1.00652 -0.845745 -2.86338 -0.454173 -0.55859 0.69405 107 130 51
1.02492 -0.851245 -2.86819 0.134875 -0.584536 0.800079 110 133 52
1.04301 -0.857116 -2.86992 0.182833 -0.630348 0.754475 109 133 50
1.06474 -0.848626 -2.87394 0.0427331 -0.629494 0.775829 108 132 52
1.10897 -0.85126 -2.89034 0.271578 -0.604793 0.748646 73 92 56
-0.977612 -0.609728 -3.00438 -0.565939 -0.277983 0.776169 16 13 11
-0.977927 -0.609298 -3.00497 -0.564854 -0.274429 0.778221 16 13 11
-0.977927 -0.609298 -3.00497 -0.564854 -0.274429 0.778221 16 13 11
-0.944676 -0.625062 -2.99841 -0.495583 -0.244373 0.833474 23 17 14
-0.939084 -0.616015 -3.00327 -0.502906 -0.379 0.776817 29 20 17
-0.783832 -0.674639 -2.76584 0.322313 -0.324044 0.889444 27 19 17
-0.768496 -0.673371 -2.76523 0.239578 -0.341794 0.908724 38 25 25
-0.76647 -0.674829 -2.76823 0.115362 -0.371225 0.921349 43 27 29
-0.750287 -0.673086 -2.7686 0.368049 -0.276272 0.887814 126 68 81
-0.732418 -0.672643 -2.77529 0.382696 -0.268909 0.883873 168 63 84
-0.708866 -0.671756 -2.77868 0.241376 -0.350962 0.904745 183 83 110
-0.702481 -0.687273 -2.78575 0.292937 -0.330229 0.897294 178 100 121
-0.693372 -0.672046 -2.78 0.372458 -0.302599 0.877331 161 119 135
-0.685986 -0.687382 -2.79053 0.349963 -0.32676 0.877926 122 137 155
-0.676387 -0.671984 -2.78813 0.420091 -0.296608 0.85764 92 156 168
-0.669592 -0.687131 -2.79845 0.430222 -0.293129 0.853806 68 152 175
-0.641115 -0.685931 -2.81266 0.378187 -0.297282 0.876697 96 149 152
-0.624417 -0.685979 -2.81879 0.310946 -0.314622 0.896842 85 57 48
-0.609111 -0.686298 -2.81746 -0.0634504 -0.354486 0.932906 59 13 9
-0.557674 -0.70275 -2.78153 -0.484443 -0.329151 0.81054 21 37 25
-0.535959 -0.703266 -2.77839 0.183105 -0.287549 0.9401 77 142 94
-0.518254 -0.703478 -2.78214 0.34824 -0.321822 0.880432 91 161 102
-0.486591 -0.704522 -2.79908 0.438286 -0.141011 0.887706 91 164 106
-0.453082 -0.70478 -2.81029 0.455154 -0.293935 0.840498 74 128 91
-0.436107 -0.704283 -2.81629 0.47261 -0.301094 0.828241 63 96 68
-0.416847 -0.702237 -2.83013 0.508268 -0.314382 0.801765 49 62 46
-0.418679 -0.701838 -2.82895 0.485517 -0.344232 0.803603 51 66 49
-0.387427 -0.699738 -2.8483 0.417575 -0.153278 0.895621 27 23 16
-0.378773 -0.715682 -2.85036 0.334479 -0.24376 0.910332 18 16 13
-0.369646 -0.700282 -2.84101 0.0491559 -0.449476 0.891939 15 15 12
-0.358976 -0.715619 -2.84397 -0.237889 -0.361714 0.901428 12 12 11
-0.322079 -0.712301 -2.83907 -0.628104 -0.315605 0.711251 25 23 15
-0.311066 -0.724486 -2.84081 -0.461225 -0.232383 0.856312 39 33 18
-0.291908 -0.726976 -2.81281 -0.466185 -0.220756 0.856702 53 39 15
-0.281667 -0.730933 -2.75288 -0.499064 -0.348419 0.793435 50 31 15
-0.281651 -0.731291 -2.75276 -0.498281 -0.34554 0.795184 50 31 15
-0.261653 -0.731595 -2.75065 -0.0380914 -0.350721 0.935705 94 51 24
-0.261666 -0.731901 -2.75066 -0.0418444 -0.350608 0.935587 94 51 24
-0.263187 -0.730496 -2.75116 -0.656179 -0.321333 0.68277 117 62 27
-0.246603 -0.731025 -2.75155 0.224853 -0.313464 0.922595 110 60 28
-0.247031 -0.739627 -2.76349 0.361577 -0.273178 0.891424 110 61 29
-0.239191 -0.744183 -2.76487 0.605768 -0.18322 0.774258 113 64 30
-0.225336 -0.746719 -2.76038 0.391752 -0.360371 0.84656 125 73 34
-0.229573 -0.729263 -2.76786 0.320641 -0.25942 0.910983 125 71 34
-0.210761 -0.729887 -2.76421 0.459212 -0.398849 0.793753 145 87 42
-0.190781 -0.747129 -2.76421 0.46453 -0.285518 0.838267 135 83 33
-0.171534 -0.742935 -2.77705 0.700923 -0.213875 0.680415 187 154 46
-0.15713 -0.738056 -2.78768 0.681176 -0.226395 0.696236 206 182 41
-0.140413 -0.749355 -2.79541 0.439698 -0.35896 0.823294 207 183 40
-0.121046 -0.745045 -2.78414 -0.0397343 -0.503022 0.86336 211 187 42
-0.120064 -0.751208 -2.80071 -0.0514714 -0.182676 0.981825 211 188 42
-0.104728 -0.750875 -2.80553 0.285531 -0.0618915 0.956369 215 191 43
-0.0866729 -0.7495 -2.81009 -0.0721097 -0.451765 0.889218 219 195 45
-0.0685026 -0.749094 -2.81162 0.325598 -0.296247 0.8979 220 198 50
-0.0503455 -0.749087 -2.8185 0.213994 -0.0944692 0.972256 219 197 52
-0.0297999 -0.756972 -2.81468 0.469094 -0.405348 0.78463 217 195 51
-0.0122818 -0.754887 -2.82859 0.243492 -0.160527 0.956526 216 193 54
0.0115046 -0.749855 -2.82714 0.446461 -0.508214 0.736472 216 196 57
0.0447895 -0.75223 -2.83492 0.470309 -0.376834 0.798001 218 197 59
0.0619703 -0.753756 -2.83877 0.395208 -0.116309 0.911199 218 196 59
0.0777445 -0.753954 -2.84423 0.410815 -0.0628932 0.909547 220 197 61
0.067499 -0.771602 -2.83134 0.589059 0.270123 0.761606 219 196 54
0.0964373 -0.755405 -2.85184 0.515597 0.0645078 0.8544 224 194 62
0.112407 -0.755575 -2.86367 0.466681 -0.124625 0.875601 217 157 55
0.104184 -0.772226 -2.85502 0.740228 -0.23719 0.629129 222 199 58
0.119633 -0.771861 -2.87105 0.393165 -0.346448 0.851701 219 189 60
0.137783 -0.771843 -2.87982 0.258759 -0.313724 0.913576 202 140 52
0.131334 -0.755585 -2.8694 0.342061 0.0837315 0.93594 217 70 31
0.256435 -0.768596 -2.91796 -0.825521 0.0699976 0.560014 22 22 16
0.26964 -0.785137 -2.89834 -0.84016 0.100986 0.532854 23 23 15
0.291296 -0.788326 -2.86998 -0.859823 -0.0461164 0.508506 38 48 18
0.310932 -0.780662 -2.83762 -0.581411 0.307742 0.753164 84 118 55
0.321106 -0.798098 -2.82348 -0.672195 0.241865 0.699754 82 118 53
0.341893 -0.799323 -2.81666 -0.45151 0.430228 0.781692 96 145 67
0.36173 -0.807712 -2.81574 -0.295657 0.576927 0.761408 107 166 82
0.359738 -0.799778 -2.82674 -0.439451 0.506003 0.742189 108 168 83
0.381568 -0.803729 -2.82934 -0.359219 0.510814 0.781045 119 182 94
0.385507 -0.809218 -2.82942 -0.720453 0.365744 0.589219 118 184 93
0.445681 -0.798366 -2.85568 -0.03668 0.620668 0.783215 136 146 134
0.489513 -0.779079 -2.99695 0.233336 0.715793 0.658175 132 140 130
0.514959 -0.801655 -2.9722 0.106714 0.729139 0.675994 140 146 140
0.539479 -0.792688 -2.9849 0.0476534 0.765974 0.641104 133 141 132
0.561707 -0.806598 -2.97215 -0.0532908 0.740652 0.669772 133 140 134
0.569464 -0.801751 -2.99473 0.0837943 0.582586 0.808438 132 140 134
0.58907 -0.796542 -3.00178 -0.662891 0.394855 0.636132 131 143 139
0.610309 -0.81103 -2.99095 -0.582648 0.538252 0.608939 135 147 142
0.638627 -0.794275 -3.00494 -0.81128 -0.26367 0.521827 123 134 129
0.632795 -0.810307 -2.98443 -0.491119 0.385277 0.781258 132 145 141
0.647003 -0.807743 -2.98444 -0.649354 0.106041 0.753057 127 138 133
0.660627 -0.822647 -2.95307 0.0986058 0.71944 0.68752 127 139 137
0.710016 -0.830529 -2.87596 -0.936696 -0.261535 0.232809 71 111 42
0.700962 -0.831685 -2.90609 -0.718556 0.442962 0.536154 40 75 36
0.710016 -0.830529 -2.87596 -0.936696 -0.261535 0.232809 71 111 42
0.710016 -0.830529 -2.87596 -0.936696 -0.261535 0.232809 71 111 42
0.73334 -0.830852 -2.84288 -0.43059 -0.536941 0.725456 92 123 42
0.752521 -0.841735 -2.84569 -0.128633 -0.645572 0.752788 96 125 47
0.771563 -0.834897 -2.83297 -0.142388 -0.539122 0.830104 105 139 54
0.785794 -0.842468 -2.83434 -0.09267 -0.640677 0.762198 102 133 50
0.805153 -0.852623 -2.83887 -0.302559 -0.698585 0.648411 93 120 40
0.805678 -0.852973 -2.8407 -0.057679 -0.627441 0.776525 95 123 43
0.82701 -0.853185 -2.83684 -0.115394 -0.518072 0.847518 96 125 44
0.844719 -0.845592 -2.82794 -0.111169 -0.543522 0.832001 100 131 48
0.867142 -0.854354 -2.84374 -0.069599 -0.584908 0.808108 99 126 46
0.884457 -0.864463 -2.84461 0.357642 -0.571537 0.738538 98 121 42
0.91639 -0.853399 -2.83698 -0.0229411 -0.69128 0.722223 99 122 44
0.930607 -0.863514 -2.83711 0.26141 -0.54304 0.797981 98 122 42
1.0073 -0.864622 -2.88655 -0.438359 -0.518275 0.734324 109 133 51
1.02822 -0.873605 -2.8965 0.206974 -0.641219 0.738918 108 136 52
1.08902 -0.864782 -2.90513 0.188098 -0.62569 0.757054 71 118 53
1.11134 -0.870864 -2.92443 -0.0894102 -0.817174 0.569414 79 135 83
-0.967639 -0.633901 -3.02045 -0.487683 -0.211626 0.846983 17 14 12
-0.942633 -0.637154 -3.0087 -0.291115 -0.294776 0.910142 23 17 14
-0.922081 -0.639008 -3.004 -0.306506 -0.291202 0.906231 30 21 18
-0.776565 -0.690026 -2.77324 0.189901 -0.332757 0.923694 30 20 19
-0.789565 -0.689056 -2.79238 0.326777 -0.334053 0.884096 30 19 15
-0.758344 -0.69011 -2.77359 0.262426 -0.323489 0.909114 74 39 46
-0.744977 -0.692974 -2.78213 0.185906 -0.382249 0.905166 150 65 87
-0.739927 -0.69018 -2.77738 0.168829 -0.332359 0.927919 171 72 96
-0.719787 -0.687418 -2.77804 0.21059 -0.305786 0.928519 165 46 74
-0.711691 -0.703125 -2.78462 0.270759 -0.378783 0.884993 177 63 92
-0.693648 -0.703112 -2.7907 0.363828 -0.326442 0.87239 164 113 131
-0.675535 -0.702985 -2.80125 0.40125 -0.312204 0.86112 79 147 168
-0.659007 -0.702996 -2.80871 0.454768 -0.280556 0.845266 63 151 175
-0.634543 -0.701211 -2.8206 0.310537 -0.297867 0.902686 90 129 130
-0.617362 -0.701283 -2.8248 0.167909 -0.338703 0.92579 80 31 24
-0.596767 -0.703592 -2.81288 -0.604029 -0.161796 0.780366 38 13 11
-0.567706 -0.715723 -2.79507 -0.656682 -0.290147 0.69612 18 20 17
-0.547256 -0.718084 -2.78386 -0.136611 -0.333158 0.932922 48 90 60
-0.529446 -0.7184 -2.78682 0.264235 -0.309512 0.913445 83 153 100
-0.529037 -0.71797 -2.78515 0.301439 -0.312493 0.900823 84 153 100
-0.512956 -0.718467 -2.79303 0.357243 -0.312074 0.880333 87 157 100
-0.479503 -0.718951 -2.80417 0.379141 -0.197121 0.904099 76 136 94
-0.496481 -0.718539 -2.79995 0.399877 -0.223572 0.888884 84 152 101
-0.462831 -0.719131 -2.81022 0.393685 -0.196336 0.898033 62 105 74
-0.447542 -0.719194 -2.81806 0.445494 -0.190351 0.874815 80 117 83
-0.41111 -0.71651 -2.83396 0.420563 -0.232338 0.87701 50 63 45
-0.420639 -0.731328 -2.83391 0.387027 -0.219071 0.895666 67 90 72
-0.404626 -0.731705 -2.83886 0.354604 -0.281903 0.891508 58 70 53
-0.39501 -0.717598 -2.83407 0.205134 -0.350679 0.913753 34 35 25
-0.388206 -0.732488 -2.83976 -0.0676091 -0.339178 0.93829 36 36 24
-0.368962 -0.730706 -2.8511 0.128215 -0.284215 0.950149 18 18 14
-0.349157 -0.731409 -2.84654 -0.201085 -0.316567 0.927011 15 14 12
-0.325958 -0.730625 -2.84374 -0.497774 -0.330588 0.801831 21 18 12
-0.314577 -0.732428 -2.84837 -0.688161 -0.256021 0.678887 33 29 17
-0.315596 -0.733372 -2.85236 -0.500615 -0.201439 0.841906 34 30 18
-0.297464 -0.742939 -2.81251 -0.478712 -0.258176 0.839154 47 40 18
-0.268807 -0.749961 -2.75368 -0.284734 -0.299302 0.910684 74 41 21
-0.254511 -0.744138 -2.7601 0.558364 -0.234067 0.795891 100 55 27
-0.255987 -0.744831 -2.75615 -0.637463 -0.349209 0.6868 127 68 32
-0.254509 -0.744448 -2.76012 0.557992 -0.235005 0.795875 100 55 27
-0.23987 -0.754593 -2.76897 0.286904 -0.311571 0.905875 114 64 28
-0.224261 -0.756157 -2.76252 0.334429 -0.292608 0.895845 125 73 34
-0.203972 -0.760195 -2.777 0.336407 -0.464846 0.818992 128 74 30
-0.185329 -0.760979 -2.77127 0.584091 -0.237409 0.776193 132 83 29
-0.163048 -0.769294 -2.78981 0.569674 -0.245935 0.784212 210 185 48
-0.170912 -0.756381 -2.78162 0.68435 -0.206142 0.699408 188 157 46
-0.14673 -0.766308 -2.79265 0.31067 -0.298406 0.902462 209 186 41
-0.15637 -0.753042 -2.79093 0.615876 -0.247526 0.747949 207 184 42
-0.131901 -0.766169 -2.80056 0.250888 -0.0640777 0.965893 212 188 43
-0.11403 -0.76618 -2.80498 0.222391 -0.0359279 0.974295 215 191 44
-0.0975576 -0.759229 -2.81862 0.275982 -0.177282 0.944672 218 195 46
-0.0776575 -0.764299 -2.80955 0.102189 -0.114921 0.988105 221 198 50
-0.0611383 -0.764905 -2.81959 0.346359 -0.239482 0.907019 221 199 52
-0.0643862 -0.76715 -2.81948 0.384981 -0.231272 0.893478 221 199 51
-0.0393255 -0.769251 -2.82176 0.478369 -0.474365 0.739014 218 196 48
-0.0119728 -0.772146 -2.8293 -0.176626 -0.702386 0.689534 215 193 49
0.015484 -0.765373 -2.8436 0.219264 -0.539202 0.813133 217 195 53
0.0153202 -0.765337 -2.84348 0.219014 -0.53692 0.814708 217 195 53
0.0620144 -0.784254 -2.84463 -0.245198 0.483021 0.840576 218 196 53
0.0626381 -0.783596 -2.84994 -0.289512 0.444619 0.847642 218 196 53
0.0626381 -0.783596 -2.84994 -0.289512 0.444619 0.847642 218 196 54
0.108098 -0.788183 -2.8718 0.71429 -0.411004 0.56645 219 203 64
0.122635 -0.787249 -2.90053 0.185672 -0.860191 0.474971 202 181 66
0.154382 -0.777316 -2.91032 0.632682 0.337216 0.697136 193 97 53
0.175337 -0.777352 -2.92217 0.600482 0.459068 0.654735 155 128 117
0.243427 -0.789436 -2.94187 -0.664694 0.273977 0.695067 36 34 27
0.302803 -0.809149 -2.85715 -0.791476 0.0754004 0.606532 41 53 22
0.327011 -0.816992 -2.81098 -0.76267 0.112105 0.636999 80 110 49
0.341808 -0.817393 -2.79994 -0.529434 0.330522 0.781316 88 132 59
0.361435 -0.821446 -2.79653 -0.324387 0.518578 0.791107 101 158 76
0.381303 -0.818455 -2.81134 -0.0962629 0.580585 0.808489 117 180 91
0.411182 -0.834859 -2.79953 0.313687 0.405204 0.858726 126 190 101
0.404173 -0.817376 -2.81185 0.18524 0.662117 0.726146 122 189 99
0.436339 -0.833077 -2.82355 0.211658 0.412488 0.886033 132 169 115
0.45765 -0.832106 -2.82482 0.113919 0.450418 0.88552 136 146 133
0.446031 -0.818515 -2.84583 0.219961 0.619771 0.753327 136 147 132
0.513883 -0.821661 -2.94798 0.0481598 0.712614 0.699901 131 139 130
0.538481 -0.812667 -2.96108 0.0584218 0.711646 0.700105 141 146 139
0.561181 -0.826381 -2.95001 0.198176 0.702587 0.683446 139 145 139
0.583684 -0.82059 -2.95852 0.11228 0.6881 0.716876 141 146 141
0.620102 -0.82909 -2.9914 -0.822245 0.410992 0.393699 136 147 143
0.643728 -0.832492 -2.94668 0.0272715 0.78271 0.621789 133 145 142
0.633749 -0.831784 -2.95297 -0.215348 0.737646 0.639924 134 146 142
0.68244 -0.831318 -2.93605 -0.343057 0.635734 0.691487 93 103 94
0.667494 -0.840924 -2.93307 0.199358 0.6895 0.696309 112 122 119
0.708865 -0.845122 -2.88839 -0.486625 0.174567 0.855992 52 90 34
0.706565 -0.845899 -2.88093 -0.778682 -0.14119 0.611326 51 90 34
0.706565 -0.845899 -2.88093 -0.778682 -0.14119 0.611326 51 90 34
0.712942 -0.849344 -2.84103 -0.609542 -0.558348 0.562766 76 108 37
0.732899 -0.848764 -2.85673 -0.260801 -0.433867 0.862405 88 115 41
0.752448 -0.859741 -2.8569 -0.122463 -0.636117 0.761812 86 106 36
0.765681 -0.866689 -2.85987 -0.203024 -0.631281 0.748509 84 102 33
0.785935 -0.860205 -2.8537 -0.126475 -0.630119 0.766129 88 112 39
0.805612 -0.870859 -2.85357 -0.243029 -0.586392 0.77271 91 116 41
0.846258 -0.862862 -2.84385 -0.145459 -0.67274 0.72544 97 124 43
0.87329 -0.869681 -2.85372 -0.000685409 -0.594272 0.804264 99 121 43
0.920348 -0.871473 -2.86027 0.264973 -0.534488 0.802566 101 125 46
0.950389 -0.887862 -2.88243 0.173299 -0.384259 0.906815 106 132 52
0.961901 -0.871424 -2.87943 0.195066 -0.315573 0.928635 103 129 47
0.974187 -0.88694 -2.88941 -0.0805109 -0.842604 0.532481 102 130 51
0.992524 -0.887581 -2.90708 0.0091684 -0.868645 0.49535 98 126 49
1.06962 -0.876767 -2.9262 -0.324149 -0.719207 0.614548 93 127 55
1.09123 -0.883846 -2.93877 0.00692034 -0.870734 0.491706 53 85 38
-0.953559 -0.648077 -3.01065 -0.366414 0.0289622 0.930001 21 16 14
-0.927534 -0.659497 -3.00708 -0.18647 -0.57572 0.7961 26 19 16
-0.912469 -0.660965 -3.01757 -0.356918 -0.496368 0.791346 31 21 16
-0.786162 -0.705674 -2.78056 0.338554 -0.358733 0.86988 28 19 17
-0.768015 -0.705785 -2.78141 0.0204106 -0.381391 0.924188 37 23 24
-0.768069 -0.70603 -2.78148 0.021561 -0.382126 0.923859 37 23 24
-0.750513 -0.706221 -2.78131 0.244474 -0.337463 0.909038 110 46 61
-0.722883 -0.718005 -2.79016 0.219387 -0.276413 0.935663 163 37 67
-0.732031 -0.706283 -2.7847 0.159899 -0.341138 0.926314 174 51 81
-0.686449 -0.718203 -2.80137 0.290066 -0.326378 0.899633 141 121 144
-0.670416 -0.718181 -2.80595 0.314395 -0.26707 0.91095 78 150 170
-0.643818 -0.716735 -2.82106 0.401361 -0.26545 0.87661 75 153 170
-0.627823 -0.716819 -2.82634 0.415442 -0.222582 0.881967 77 99 102
-0.612593 -0.716978 -2.82928 0.150434 -0.260734 0.953618 73 25 20
